305150.0 5724180.0 689.77
305150.0 5724190.0 685.62
305150.0 5724200.0 683.94
305150.0 5724210.0 687.04
305150.0 5724220.0 686.01
305150.0 5724230.0 694.32
305160.0 5723700.0 762.26
305160.0 5723710.0 760.23
305160.0 5723720.0 758.49
305160.0 5723730.0 757.03
305160.0 5723740.0 757.00
305160.0 5723750.0 758.10
305160.0 5723760.0 757.89
305160.0 5723770.0 758.25
305160.0 5723780.0 757.88
305160.0 5723790.0 756.19
305160.0 5723800.0 756.74
305160.0 5723810.0 758.20
305160.0 5723820.0 757.95
305160.0 5723830.0 757.89
305160.0 5723840.0 758.82
305160.0 5723850.0 758.55
305160.0 5723860.0 758.75
305160.0 5723870.0 758.72
305160.0 5723880.0 757.32
305160.0 5723890.0 759.34
305160.0 5723900.0 759.81
305160.0 5723910.0 759.45
305160.0 5723920.0 755.84
305160.0 5723930.0 756.18
305160.0 5723940.0 755.83
305160.0 5723950.0 754.77
305160.0 5723960.0 753.91
305160.0 5723970.0 751.44
305160.0 5723980.0 749.46
305160.0 5723990.0 744.47
305160.0 5724000.0 741.81
305160.0 5724010.0 740.12
305160.0 5724020.0 737.76
305160.0 5724030.0 738.50
305160.0 5724040.0 736.50
305160.0 5724050.0 735.50
305160.0 5724060.0 732.84
305160.0 5724070.0 730.94
305160.0 5724080.0 729.26
305160.0 5724090.0 725.89
305160.0 5724100.0 722.90
305160.0 5724110.0 719.76
305160.0 5724120.0 714.39
305160.0 5724130.0 708.68
305160.0 5724140.0 704.29
305160.0 5724150.0 699.62
305160.0 5724160.0 697.39
305160.0 5724170.0 691.94
305160.0 5724180.0 684.86
305160.0 5724190.0 682.08
305160.0 5724200.0 679.65
305160.0 5724210.0 679.84
305160.0 5724220.0 676.78
305160.0 5724230.0 679.55
305170.0 5723700.0 756.72
305170.0 5723710.0 757.38
305170.0 5723720.0 756.05
305170.0 5723730.0 754.12
305170.0 5723740.0 753.49
305170.0 5723750.0 754.25
305170.0 5723760.0 755.89
305170.0 5723770.0 755.97
305170.0 5723780.0 756.02
305170.0 5723790.0 753.20
305170.0 5723800.0 752.47
305170.0 5723810.0 752.95
305170.0 5723820.0 754.35
305170.0 5723830.0 754.07
305170.0 5723840.0 754.02
305170.0 5723850.0 753.25
305170.0 5723860.0 753.40
305170.0 5723870.0 754.95
305170.0 5723880.0 753.48
305170.0 5723890.0 755.40
305170.0 5723900.0 756.20
305170.0 5723910.0 754.50
305170.0 5723920.0 751.91
305170.0 5723930.0 752.46
305170.0 5723940.0 751.75
305170.0 5723950.0 751.57
305170.0 5723960.0 751.49
305170.0 5723970.0 749.30
305170.0 5723980.0 745.61
305170.0 5723990.0 742.86
305170.0 5724000.0 739.23
305170.0 5724010.0 736.77
305170.0 5724020.0 735.06
305170.0 5724030.0 733.48
305170.0 5724040.0 732.79
305170.0 5724050.0 732.51
305170.0 5724060.0 730.86
305170.0 5724070.0 729.05
305170.0 5724080.0 726.69
305170.0 5724090.0 722.84
305170.0 5724100.0 720.18
305170.0 5724110.0 714.98
305170.0 5724120.0 709.08
305170.0 5724130.0 702.71
305170.0 5724140.0 700.36
305170.0 5724150.0 695.00
305170.0 5724160.0 690.99
305170.0 5724170.0 687.39
305170.0 5724180.0 683.37
305170.0 5724190.0 678.81
305170.0 5724200.0 676.09
305170.0 5724210.0 673.42
305170.0 5724220.0 672.39
305170.0 5724230.0 669.22
305180.0 5723700.0 755.86
305180.0 5723710.0 753.68
305180.0 5723720.0 752.77
305180.0 5723730.0 751.74
305180.0 5723740.0 750.86
305180.0 5723750.0 751.09
305180.0 5723760.0 751.55
305180.0 5723770.0 751.90
305180.0 5723780.0 752.32
305180.0 5723790.0 751.23
305180.0 5723800.0 750.17
305180.0 5723810.0 750.08
305180.0 5723820.0 750.34
305180.0 5723830.0 749.87
305180.0 5723840.0 749.39
305180.0 5723850.0 749.47
305180.0 5723860.0 748.79
305180.0 5723870.0 749.68
305180.0 5723880.0 749.21
305180.0 5723890.0 750.57
305180.0 5723900.0 751.15
305180.0 5723910.0 749.34
305180.0 5723920.0 748.27
305180.0 5723930.0 748.06
305180.0 5723940.0 747.48
305180.0 5723950.0 747.57
305180.0 5723960.0 747.16
305180.0 5723970.0 746.41
305180.0 5723980.0 743.17
305180.0 5723990.0 741.79
305180.0 5724000.0 736.78
305180.0 5724010.0 734.77
305180.0 5724020.0 733.32
305180.0 5724030.0 731.62
305180.0 5724040.0 730.26
305180.0 5724050.0 729.54
305180.0 5724060.0 726.91
305180.0 5724070.0 725.15
305180.0 5724080.0 722.68
305180.0 5724090.0 718.47
305180.0 5724100.0 715.29
305180.0 5724110.0 711.55
305180.0 5724120.0 705.41
305180.0 5724130.0 700.85
305180.0 5724140.0 695.57
305180.0 5724150.0 691.44
305180.0 5724160.0 687.92
305180.0 5724170.0 684.94
305180.0 5724180.0 681.88
305180.0 5724190.0 677.43
305180.0 5724200.0 672.64
305180.0 5724210.0 668.81
305180.0 5724220.0 663.98
305180.0 5724230.0 663.60
305190.0 5723700.0 752.76
305190.0 5723710.0 752.47
305190.0 5723720.0 751.16
305190.0 5723730.0 750.23
305190.0 5723740.0 748.84
305190.0 5723750.0 748.45
305190.0 5723760.0 748.82
305190.0 5723770.0 749.17
305190.0 5723780.0 749.34
305190.0 5723790.0 749.10
305190.0 5723800.0 748.31
305190.0 5723810.0 747.60
305190.0 5723820.0 747.69
305190.0 5723830.0 747.24
305190.0 5723840.0 746.13
305190.0 5723850.0 745.51
305190.0 5723860.0 745.45
305190.0 5723870.0 745.71
305190.0 5723880.0 745.11
305190.0 5723890.0 748.14
305190.0 5723900.0 746.59
305190.0 5723910.0 745.45
305190.0 5723920.0 744.69
305190.0 5723930.0 744.51
305190.0 5723940.0 744.15
305190.0 5723950.0 744.07
305190.0 5723960.0 743.95
305190.0 5723970.0 742.34
305190.0 5723980.0 740.48
305190.0 5723990.0 737.34
305190.0 5724000.0 735.61
305190.0 5724010.0 732.47
305190.0 5724020.0 730.70
305190.0 5724030.0 729.80
305190.0 5724040.0 729.66
305190.0 5724050.0 725.07
305190.0 5724060.0 723.59
305190.0 5724070.0 720.84
305190.0 5724080.0 718.44
305190.0 5724090.0 716.77
305190.0 5724100.0 711.99
305190.0 5724110.0 708.22
305190.0 5724120.0 701.91
305190.0 5724130.0 697.60
305190.0 5724140.0 694.92
305190.0 5724150.0 689.94
305190.0 5724160.0 685.63
305190.0 5724170.0 681.96
305190.0 5724180.0 679.89
305190.0 5724190.0 678.43
305190.0 5724200.0 669.76
305190.0 5724210.0 666.87
305190.0 5724220.0 662.50
305190.0 5724230.0 659.57
305200.0 5723700.0 750.64
305200.0 5723710.0 749.05
305200.0 5723720.0 747.95
305200.0 5723730.0 746.93
305200.0 5723740.0 746.64
305200.0 5723750.0 746.88
305200.0 5723760.0 747.04
305200.0 5723770.0 746.78
305200.0 5723780.0 745.97
305200.0 5723790.0 745.42
305200.0 5723800.0 745.72
305200.0 5723810.0 744.98
305200.0 5723820.0 744.35
305200.0 5723830.0 744.44
305200.0 5723840.0 744.57
305200.0 5723850.0 744.59
305200.0 5723860.0 744.54
305200.0 5723870.0 744.99
305200.0 5723880.0 744.50
305200.0 5723890.0 746.60
305200.0 5723900.0 746.53
305200.0 5723910.0 745.96
305200.0 5723920.0 744.10
305200.0 5723930.0 742.96
305200.0 5723940.0 743.19
305200.0 5723950.0 742.31
305200.0 5723960.0 741.40
305200.0 5723970.0 739.23
305200.0 5723980.0 739.70
305200.0 5723990.0 736.79
305200.0 5724000.0 734.69
305200.0 5724010.0 732.53
305200.0 5724020.0 730.21
305200.0 5724030.0 729.02
305200.0 5724040.0 726.34
305200.0 5724050.0 723.23
305200.0 5724060.0 719.46
305200.0 5724070.0 716.83
305200.0 5724080.0 715.62
305200.0 5724090.0 710.90
305200.0 5724100.0 707.88
305200.0 5724110.0 703.97
305200.0 5724120.0 699.50
305200.0 5724130.0 696.73
305200.0 5724140.0 692.90
305200.0 5724150.0 688.42
305200.0 5724160.0 684.69
305200.0 5724170.0 683.38
305200.0 5724180.0 678.28
305200.0 5724190.0 676.51
305200.0 5724200.0 672.80
305200.0 5724210.0 668.10
305200.0 5724220.0 662.42
305200.0 5724230.0 660.15
305210.0 5723700.0 747.25
305210.0 5723710.0 746.44
305210.0 5723720.0 746.29
305210.0 5723730.0 744.49
305210.0 5723740.0 744.69
305210.0 5723750.0 744.15
305210.0 5723760.0 744.56
305210.0 5723770.0 744.57
305210.0 5723780.0 744.60
305210.0 5723790.0 744.68
305210.0 5723800.0 744.55
305210.0 5723810.0 744.21
305210.0 5723820.0 743.85
305210.0 5723830.0 743.84
305210.0 5723840.0 744.00
305210.0 5723850.0 744.20
305210.0 5723860.0 744.05
305210.0 5723870.0 744.08
305210.0 5723880.0 744.56
305210.0 5723890.0 743.52
305210.0 5723900.0 744.87
305210.0 5723910.0 745.60
305210.0 5723920.0 744.57
305210.0 5723930.0 743.97
305210.0 5723940.0 741.18
305210.0 5723950.0 739.91
305210.0 5723960.0 738.77
305210.0 5723970.0 737.47
305210.0 5723980.0 736.85
305210.0 5723990.0 735.64
305210.0 5724000.0 732.74
305210.0 5724010.0 731.36
305210.0 5724020.0 728.86
305210.0 5724030.0 725.86
305210.0 5724040.0 723.47
305210.0 5724050.0 720.19
305210.0 5724060.0 717.78
305210.0 5724070.0 713.09
305210.0 5724080.0 711.46
305210.0 5724090.0 708.96
305210.0 5724100.0 704.53
305210.0 5724110.0 700.17
305210.0 5724120.0 697.37
305210.0 5724130.0 693.80
305210.0 5724140.0 691.81
305210.0 5724150.0 689.91
305210.0 5724160.0 686.66
305210.0 5724170.0 683.23
305210.0 5724180.0 677.76
305210.0 5724190.0 675.87
305210.0 5724200.0 673.16
305210.0 5724210.0 669.30
305210.0 5724220.0 662.80
305210.0 5724230.0 658.65
305220.0 5723700.0 744.11
305220.0 5723710.0 743.26
305220.0 5723720.0 742.57
305220.0 5723730.0 742.48
305220.0 5723740.0 743.51
305220.0 5723750.0 743.22
305220.0 5723760.0 743.60
305220.0 5723770.0 744.88
305220.0 5723780.0 744.55
305220.0 5723790.0 744.18
305220.0 5723800.0 744.01
305220.0 5723810.0 743.46
305220.0 5723820.0 743.25
305220.0 5723830.0 743.52
305220.0 5723840.0 743.78
305220.0 5723850.0 743.95
305220.0 5723860.0 744.59
305220.0 5723870.0 744.57
305220.0 5723880.0 744.39
305220.0 5723890.0 743.32
305220.0 5723900.0 742.99
305220.0 5723910.0 742.75
305220.0 5723920.0 741.86
305220.0 5723930.0 741.13
305220.0 5723940.0 740.03
305220.0 5723950.0 739.43
305220.0 5723960.0 738.94
305220.0 5723970.0 737.81
305220.0 5723980.0 735.93
305220.0 5723990.0 734.12
305220.0 5724000.0 731.95
305220.0 5724010.0 729.36
305220.0 5724020.0 727.35
305220.0 5724030.0 724.31
305220.0 5724040.0 721.48
305220.0 5724050.0 718.48
305220.0 5724060.0 715.88
305220.0 5724070.0 713.54
305220.0 5724080.0 711.02
305220.0 5724090.0 707.93
305220.0 5724100.0 703.92
305220.0 5724110.0 700.33
305220.0 5724120.0 696.40
305220.0 5724130.0 694.60
305220.0 5724140.0 690.27
305220.0 5724150.0 688.32
305220.0 5724160.0 686.02
305220.0 5724170.0 682.85
305220.0 5724180.0 678.10
305220.0 5724190.0 674.24
305220.0 5724200.0 670.75
305220.0 5724210.0 667.23
305220.0 5724220.0 661.15
305220.0 5724230.0 655.86
305230.0 5723700.0 740.59
305230.0 5723710.0 739.96
305230.0 5723720.0 741.50
305230.0 5723730.0 742.20
305230.0 5723740.0 742.56
305230.0 5723750.0 743.06
305230.0 5723760.0 743.75
305230.0 5723770.0 744.53
305230.0 5723780.0 744.35
305230.0 5723790.0 744.00
305230.0 5723800.0 743.63
305230.0 5723810.0 743.16
305230.0 5723820.0 743.09
305230.0 5723830.0 743.21
305230.0 5723840.0 744.06
305230.0 5723850.0 744.61
305230.0 5723860.0 745.38
305230.0 5723870.0 745.49
305230.0 5723880.0 745.55
305230.0 5723890.0 744.84
305230.0 5723900.0 743.11
305230.0 5723910.0 742.71
305230.0 5723920.0 743.08
305230.0 5723930.0 741.23
305230.0 5723940.0 739.85
305230.0 5723950.0 739.54
305230.0 5723960.0 738.55
305230.0 5723970.0 737.06
305230.0 5723980.0 735.71
305230.0 5723990.0 733.52
305230.0 5724000.0 731.78
305230.0 5724010.0 729.47
305230.0 5724020.0 728.34
305230.0 5724030.0 726.09
305230.0 5724040.0 722.60
305230.0 5724050.0 719.71
305230.0 5724060.0 717.25
305230.0 5724070.0 715.65
305230.0 5724080.0 713.20
305230.0 5724090.0 708.78
305230.0 5724100.0 704.28
305230.0 5724110.0 700.22
305230.0 5724120.0 698.74
305230.0 5724130.0 694.97
305230.0 5724140.0 690.73
305230.0 5724150.0 686.59
305230.0 5724160.0 685.67
305230.0 5724170.0 683.04
305230.0 5724180.0 679.48
305230.0 5724190.0 674.24
305230.0 5724200.0 669.37
305230.0 5724210.0 664.45
305230.0 5724220.0 660.52
305230.0 5724230.0 653.59
305240.0 5723700.0 736.48
305240.0 5723710.0 737.91
305240.0 5723720.0 738.72
305240.0 5723730.0 740.15
305240.0 5723740.0 742.33
305240.0 5723750.0 742.56
305240.0 5723760.0 742.64
305240.0 5723770.0 743.34
305240.0 5723780.0 743.07
305240.0 5723790.0 742.91
305240.0 5723800.0 743.00
305240.0 5723810.0 743.41
305240.0 5723820.0 743.16
305240.0 5723830.0 744.09
305240.0 5723840.0 744.54
305240.0 5723850.0 745.28
305240.0 5723860.0 747.86
305240.0 5723870.0 749.62
305240.0 5723880.0 749.09
305240.0 5723890.0 747.49
305240.0 5723900.0 746.85
305240.0 5723910.0 743.92
305240.0 5723920.0 742.44
305240.0 5723930.0 740.80
305240.0 5723940.0 741.33
305240.0 5723950.0 738.94
305240.0 5723960.0 736.93
305240.0 5723970.0 736.05
305240.0 5723980.0 734.86
305240.0 5723990.0 735.33
305240.0 5724000.0 730.58
305240.0 5724010.0 730.89
305240.0 5724020.0 728.06
305240.0 5724030.0 726.30
305240.0 5724040.0 723.64
305240.0 5724050.0 721.73
305240.0 5724060.0 718.47
305240.0 5724070.0 717.17
305240.0 5724080.0 714.97
305240.0 5724090.0 711.79
305240.0 5724100.0 706.63
305240.0 5724110.0 703.34
305240.0 5724120.0 699.12
305240.0 5724130.0 695.73
305240.0 5724140.0 690.86
305240.0 5724150.0 686.29
305240.0 5724160.0 683.43
305240.0 5724170.0 682.73
305240.0 5724180.0 676.74
305240.0 5724190.0 674.02
305240.0 5724200.0 668.50
305240.0 5724210.0 663.78
305240.0 5724220.0 658.74
305240.0 5724230.0 652.17
305250.0 5723700.0 735.20
305250.0 5723710.0 736.29
305250.0 5723720.0 736.07
305250.0 5723730.0 739.39
305250.0 5723740.0 740.41
305250.0 5723750.0 742.02
305250.0 5723760.0 742.63
305250.0 5723770.0 743.00
305250.0 5723780.0 742.82
305250.0 5723790.0 742.86
305250.0 5723800.0 743.03
305250.0 5723810.0 744.02
305250.0 5723820.0 744.61
305250.0 5723830.0 744.95
305250.0 5723840.0 745.97
305250.0 5723850.0 749.05
305250.0 5723860.0 749.90
305250.0 5723870.0 749.95
305250.0 5723880.0 748.62
305250.0 5723890.0 749.69
305250.0 5723900.0 747.94
305250.0 5723910.0 745.43
305250.0 5723920.0 743.37
305250.0 5723930.0 742.07
305250.0 5723940.0 740.69
305250.0 5723950.0 739.04
305250.0 5723960.0 738.14
305250.0 5723970.0 736.79
305250.0 5723980.0 734.45
305250.0 5723990.0 732.38
305250.0 5724000.0 731.35
305250.0 5724010.0 730.48
305250.0 5724020.0 730.43
305250.0 5724030.0 727.50
305250.0 5724040.0 726.31
305250.0 5724050.0 723.33
305250.0 5724060.0 720.19
305250.0 5724070.0 718.42
305250.0 5724080.0 716.54
305250.0 5724090.0 713.09
305250.0 5724100.0 709.30
305250.0 5724110.0 703.84
305250.0 5724120.0 698.95
305250.0 5724130.0 693.33
305250.0 5724140.0 689.25
305250.0 5724150.0 684.63
305250.0 5724160.0 681.59
305250.0 5724170.0 678.46
305250.0 5724180.0 674.32
305250.0 5724190.0 672.78
305250.0 5724200.0 668.83
305250.0 5724210.0 664.12
305250.0 5724220.0 658.17
305250.0 5724230.0 652.75
305260.0 5723700.0 731.45
305260.0 5723710.0 733.69
305260.0 5723720.0 737.00
305260.0 5723730.0 738.95
305260.0 5723740.0 740.41
305260.0 5723750.0 741.92
305260.0 5723760.0 742.13
305260.0 5723770.0 742.83
305260.0 5723780.0 743.87
305260.0 5723790.0 743.94
305260.0 5723800.0 744.31
305260.0 5723810.0 744.59
305260.0 5723820.0 745.10
305260.0 5723830.0 747.40
305260.0 5723840.0 747.42
305260.0 5723850.0 748.31
305260.0 5723860.0 748.58
305260.0 5723870.0 748.70
305260.0 5723880.0 747.86
305260.0 5723890.0 748.49
305260.0 5723900.0 747.15
305260.0 5723910.0 745.16
305260.0 5723920.0 742.47
305260.0 5723930.0 740.86
305260.0 5723940.0 739.67
305260.0 5723950.0 738.38
305260.0 5723960.0 736.96
305260.0 5723970.0 736.05
305260.0 5723980.0 734.37
305260.0 5723990.0 732.52
305260.0 5724000.0 731.33
305260.0 5724010.0 730.50
305260.0 5724020.0 729.62
305260.0 5724030.0 728.15
305260.0 5724040.0 727.34
305260.0 5724050.0 724.41
305260.0 5724060.0 720.99
305260.0 5724070.0 718.79
305260.0 5724080.0 716.63
305260.0 5724090.0 714.00
305260.0 5724100.0 710.12
305260.0 5724110.0 703.84
305260.0 5724120.0 697.48
305260.0 5724130.0 692.05
305260.0 5724140.0 689.40
305260.0 5724150.0 683.61
305260.0 5724160.0 678.49
305260.0 5724170.0 674.90
305260.0 5724180.0 672.14
305260.0 5724190.0 670.92
305260.0 5724200.0 669.11
305260.0 5724210.0 663.62
305260.0 5724220.0 658.22
305260.0 5724230.0 653.23
305270.0 5723700.0 729.64
305270.0 5723710.0 733.99
305270.0 5723720.0 738.35
305270.0 5723730.0 740.22
305270.0 5723740.0 741.63
305270.0 5723750.0 741.82
305270.0 5723760.0 742.47
305270.0 5723770.0 743.62
305270.0 5723780.0 744.24
305270.0 5723790.0 744.66
305270.0 5723800.0 746.30
305270.0 5723810.0 746.49
305270.0 5723820.0 746.05
305270.0 5723830.0 746.81
305270.0 5723840.0 748.66
305270.0 5723850.0 749.80
305270.0 5723860.0 750.35
305270.0 5723870.0 749.92
305270.0 5723880.0 752.39
305270.0 5723890.0 748.03
305270.0 5723900.0 747.21
305270.0 5723910.0 745.79
305270.0 5723920.0 742.45
305270.0 5723930.0 740.53
305270.0 5723940.0 739.34
305270.0 5723950.0 738.52
305270.0 5723960.0 736.92
305270.0 5723970.0 735.76
305270.0 5723980.0 734.13
305270.0 5723990.0 733.42
305270.0 5724000.0 730.93
305270.0 5724010.0 729.67
305270.0 5724020.0 729.39
305270.0 5724030.0 728.60
305270.0 5724040.0 727.54
305270.0 5724050.0 724.34
305270.0 5724060.0 721.41
305270.0 5724070.0 717.90
305270.0 5724080.0 715.64
305270.0 5724090.0 712.16
305270.0 5724100.0 708.48
305270.0 5724110.0 702.31
305270.0 5724120.0 697.54
305270.0 5724130.0 692.35
305270.0 5724140.0 685.93
305270.0 5724150.0 682.36
305270.0 5724160.0 677.59
305270.0 5724170.0 674.22
305270.0 5724180.0 672.98
305270.0 5724190.0 670.41
305270.0 5724200.0 667.34
305270.0 5724210.0 662.51
305270.0 5724220.0 656.87
305270.0 5724230.0 655.15
305280.0 5723700.0 730.31
305280.0 5723710.0 731.87
305280.0 5723720.0 737.23
305280.0 5723730.0 739.98
305280.0 5723740.0 741.72
305280.0 5723750.0 742.10
305280.0 5723760.0 742.72
305280.0 5723770.0 743.29
305280.0 5723780.0 744.02
305280.0 5723790.0 745.44
305280.0 5723800.0 745.44
305280.0 5723810.0 744.99
305280.0 5723820.0 746.14
305280.0 5723830.0 745.99
305280.0 5723840.0 746.41
305280.0 5723850.0 749.52
305280.0 5723860.0 750.08
305280.0 5723870.0 749.29
305280.0 5723880.0 748.38
305280.0 5723890.0 747.88
305280.0 5723900.0 745.67
305280.0 5723910.0 744.67
305280.0 5723920.0 743.77
305280.0 5723930.0 741.41
305280.0 5723940.0 739.28
305280.0 5723950.0 738.05
305280.0 5723960.0 737.21
305280.0 5723970.0 735.46
305280.0 5723980.0 733.95
305280.0 5723990.0 733.57
305280.0 5724000.0 732.03
305280.0 5724010.0 730.86
305280.0 5724020.0 729.00
305280.0 5724030.0 728.11
305280.0 5724040.0 727.20
305280.0 5724050.0 725.08
305280.0 5724060.0 722.21
305280.0 5724070.0 718.41
305280.0 5724080.0 712.71
305280.0 5724090.0 710.55
305280.0 5724100.0 707.17
305280.0 5724110.0 702.57
305280.0 5724120.0 698.00
305280.0 5724130.0 691.90
305280.0 5724140.0 687.12
305280.0 5724150.0 683.39
305280.0 5724160.0 679.81
305280.0 5724170.0 674.98
305280.0 5724180.0 672.86
305280.0 5724190.0 669.15
305280.0 5724200.0 667.35
305280.0 5724210.0 664.72
305280.0 5724220.0 658.97
305280.0 5724230.0 655.51
305290.0 5723700.0 725.70
305290.0 5723710.0 733.37
305290.0 5723720.0 737.12
305290.0 5723730.0 740.36
305290.0 5723740.0 742.54
305290.0 5723750.0 742.93
305290.0 5723760.0 742.65
305290.0 5723770.0 743.27
305290.0 5723780.0 744.09
305290.0 5723790.0 744.17
305290.0 5723800.0 745.69
305290.0 5723810.0 744.82
305290.0 5723820.0 745.28
305290.0 5723830.0 746.17
305290.0 5723840.0 746.19
305290.0 5723850.0 748.09
305290.0 5723860.0 747.59
305290.0 5723870.0 748.39
305290.0 5723880.0 749.23
305290.0 5723890.0 746.64
305290.0 5723900.0 745.47
305290.0 5723910.0 744.25
305290.0 5723920.0 743.28
305290.0 5723930.0 741.08
305290.0 5723940.0 738.96
305290.0 5723950.0 737.36
305290.0 5723960.0 736.25
305290.0 5723970.0 735.73
305290.0 5723980.0 734.86
305290.0 5723990.0 733.94
305290.0 5724000.0 732.73
305290.0 5724010.0 731.31
305290.0 5724020.0 729.71
305290.0 5724030.0 727.94
305290.0 5724040.0 726.53
305290.0 5724050.0 725.00
305290.0 5724060.0 721.76
305290.0 5724070.0 717.64
305290.0 5724080.0 712.70
305290.0 5724090.0 709.70
305290.0 5724100.0 706.73
305290.0 5724110.0 701.62
305290.0 5724120.0 697.36
305290.0 5724130.0 692.23
305290.0 5724140.0 688.31
305290.0 5724150.0 684.70
305290.0 5724160.0 680.83
305290.0 5724170.0 676.26
305290.0 5724180.0 673.57
305290.0 5724190.0 669.49
305290.0 5724200.0 667.75
305290.0 5724210.0 663.14
305290.0 5724220.0 660.84
305290.0 5724230.0 659.40
305300.0 5723700.0 725.12
305300.0 5723710.0 735.10
305300.0 5723720.0 738.21
305300.0 5723730.0 740.87
305300.0 5723740.0 742.96
305300.0 5723750.0 743.44
305300.0 5723760.0 743.46
305300.0 5723770.0 743.53
305300.0 5723780.0 743.77
305300.0 5723790.0 745.15
305300.0 5723800.0 744.99
305300.0 5723810.0 745.82
305300.0 5723820.0 746.43
305300.0 5723830.0 745.75
305300.0 5723840.0 746.21
305300.0 5723850.0 746.02
305300.0 5723860.0 747.88
305300.0 5723870.0 746.80
305300.0 5723880.0 746.35
305300.0 5723890.0 744.32
305300.0 5723900.0 744.06
305300.0 5723910.0 743.50
305300.0 5723920.0 742.23
305300.0 5723930.0 740.22
305300.0 5723940.0 737.19
305300.0 5723950.0 735.90
305300.0 5723960.0 735.12
305300.0 5723970.0 735.26
305300.0 5723980.0 734.87
305300.0 5723990.0 733.38
305300.0 5724000.0 732.14
305300.0 5724010.0 730.86
305300.0 5724020.0 729.26
305300.0 5724030.0 727.39
305300.0 5724040.0 725.51
305300.0 5724050.0 723.53
305300.0 5724060.0 719.92
305300.0 5724070.0 717.99
305300.0 5724080.0 712.81
305300.0 5724090.0 708.21
305300.0 5724100.0 704.76
305300.0 5724110.0 701.29
305300.0 5724120.0 697.10
305300.0 5724130.0 693.45
305300.0 5724140.0 689.36
305300.0 5724150.0 685.34
305300.0 5724160.0 681.39
305300.0 5724170.0 677.38
305300.0 5724180.0 673.76
305300.0 5724190.0 670.30
305300.0 5724200.0 665.93
305300.0 5724210.0 663.00
305300.0 5724220.0 661.76
305300.0 5724230.0 659.03
305310.0 5723700.0 723.22
305310.0 5723710.0 735.01
305310.0 5723720.0 738.15
305310.0 5723730.0 739.75
305310.0 5723740.0 741.77
305310.0 5723750.0 742.89
305310.0 5723760.0 742.54
305310.0 5723770.0 742.73
305310.0 5723780.0 742.56
305310.0 5723790.0 742.29
305310.0 5723800.0 742.39
305310.0 5723810.0 744.48
305310.0 5723820.0 743.87
305310.0 5723830.0 744.38
305310.0 5723840.0 743.65
305310.0 5723850.0 745.06
305310.0 5723860.0 745.06
305310.0 5723870.0 745.25
305310.0 5723880.0 742.94
305310.0 5723890.0 742.63
305310.0 5723900.0 741.93
305310.0 5723910.0 741.00
305310.0 5723920.0 738.47
305310.0 5723930.0 737.07
305310.0 5723940.0 735.24
305310.0 5723950.0 734.62
305310.0 5723960.0 733.93
305310.0 5723970.0 733.06
305310.0 5723980.0 732.60
305310.0 5723990.0 731.61
305310.0 5724000.0 730.90
305310.0 5724010.0 729.39
305310.0 5724020.0 728.08
305310.0 5724030.0 726.09
305310.0 5724040.0 723.98
305310.0 5724050.0 721.88
305310.0 5724060.0 718.47
305310.0 5724070.0 715.97
305310.0 5724080.0 712.23
305310.0 5724090.0 708.01
305310.0 5724100.0 704.13
305310.0 5724110.0 699.64
305310.0 5724120.0 697.26
305310.0 5724130.0 693.17
305310.0 5724140.0 689.27
305310.0 5724150.0 684.83
305310.0 5724160.0 681.06
305310.0 5724170.0 675.99
305310.0 5724180.0 673.91
305310.0 5724190.0 670.39
305310.0 5724200.0 666.58
305310.0 5724210.0 665.80
305310.0 5724220.0 663.51
305310.0 5724230.0 661.44
305320.0 5723700.0 722.72
305320.0 5723710.0 731.62
305320.0 5723720.0 735.56
305320.0 5723730.0 737.07
305320.0 5723740.0 738.21
305320.0 5723750.0 739.96
305320.0 5723760.0 739.35
305320.0 5723770.0 739.75
305320.0 5723780.0 740.53
305320.0 5723790.0 740.25
305320.0 5723800.0 741.19
305320.0 5723810.0 741.44
305320.0 5723820.0 742.53
305320.0 5723830.0 742.44
305320.0 5723840.0 742.53
305320.0 5723850.0 741.97
305320.0 5723860.0 742.48
305320.0 5723870.0 740.99
305320.0 5723880.0 741.61
305320.0 5723890.0 739.88
305320.0 5723900.0 739.22
305320.0 5723910.0 738.08
305320.0 5723920.0 735.89
305320.0 5723930.0 733.29
305320.0 5723940.0 731.40
305320.0 5723950.0 730.40
305320.0 5723960.0 730.49
305320.0 5723970.0 729.26
305320.0 5723980.0 727.42
305320.0 5723990.0 728.91
305320.0 5724000.0 728.32
305320.0 5724010.0 727.33
305320.0 5724020.0 725.32
305320.0 5724030.0 724.14
305320.0 5724040.0 722.26
305320.0 5724050.0 720.12
305320.0 5724060.0 716.70
305320.0 5724070.0 713.66
305320.0 5724080.0 710.41
305320.0 5724090.0 707.28
305320.0 5724100.0 702.67
305320.0 5724110.0 697.68
305320.0 5724120.0 694.17
305320.0 5724130.0 692.46
305320.0 5724140.0 689.14
305320.0 5724150.0 684.86
305320.0 5724160.0 681.28
305320.0 5724170.0 677.06
305320.0 5724180.0 674.31
305320.0 5724190.0 670.16
305320.0 5724200.0 666.78
305320.0 5724210.0 666.23
305320.0 5724220.0 666.94
305320.0 5724230.0 662.02
305330.0 5723700.0 716.54
305330.0 5723710.0 726.39
305330.0 5723720.0 729.41
305330.0 5723730.0 729.89
305330.0 5723740.0 731.12
305330.0 5723750.0 732.02
305330.0 5723760.0 734.38
305330.0 5723770.0 734.57
305330.0 5723780.0 733.97
305330.0 5723790.0 735.85
305330.0 5723800.0 735.91
305330.0 5723810.0 736.60
305330.0 5723820.0 736.67
305330.0 5723830.0 737.69
305330.0 5723840.0 739.70
305330.0 5723850.0 740.32
305330.0 5723860.0 738.01
305330.0 5723870.0 737.35
305330.0 5723880.0 736.97
305330.0 5723890.0 735.89
305330.0 5723900.0 735.17
305330.0 5723910.0 733.50
305330.0 5723920.0 731.73
305330.0 5723930.0 729.03
305330.0 5723940.0 726.84
305330.0 5723950.0 727.16
305330.0 5723960.0 725.97
305330.0 5723970.0 724.14
305330.0 5723980.0 723.88
305330.0 5723990.0 721.98
305330.0 5724000.0 722.86
305330.0 5724010.0 722.37
305330.0 5724020.0 721.73
305330.0 5724030.0 720.47
305330.0 5724040.0 718.57
305330.0 5724050.0 716.40
305330.0 5724060.0 713.12
305330.0 5724070.0 710.49
305330.0 5724080.0 707.97
305330.0 5724090.0 704.60
305330.0 5724100.0 700.80
305330.0 5724110.0 696.18
305330.0 5724120.0 693.19
305330.0 5724130.0 691.09
305330.0 5724140.0 686.06
305330.0 5724150.0 683.31
305330.0 5724160.0 681.49
305330.0 5724170.0 678.94
305330.0 5724180.0 673.40
305330.0 5724190.0 667.10
305330.0 5724200.0 666.54
305330.0 5724210.0 663.54
305330.0 5724220.0 662.51
305330.0 5724230.0 660.00
305340.0 5723700.0 711.76
305340.0 5723710.0 718.94
305340.0 5723720.0 723.56
305340.0 5723730.0 724.68
305340.0 5723740.0 727.60
305340.0 5723750.0 727.61
305340.0 5723760.0 727.06
305340.0 5723770.0 727.70
305340.0 5723780.0 728.78
305340.0 5723790.0 729.35
305340.0 5723800.0 729.33
305340.0 5723810.0 730.92
305340.0 5723820.0 732.74
305340.0 5723830.0 735.11
305340.0 5723840.0 737.17
305340.0 5723850.0 736.16
305340.0 5723860.0 733.89
305340.0 5723870.0 734.14
305340.0 5723880.0 733.92
305340.0 5723890.0 732.49
305340.0 5723900.0 731.87
305340.0 5723910.0 731.53
305340.0 5723920.0 727.63
305340.0 5723930.0 725.61
305340.0 5723940.0 722.22
305340.0 5723950.0 720.86
305340.0 5723960.0 719.31
305340.0 5723970.0 717.03
305340.0 5723980.0 715.82
305340.0 5723990.0 717.24
305340.0 5724000.0 717.28
305340.0 5724010.0 718.42
305340.0 5724020.0 716.93
305340.0 5724030.0 715.92
305340.0 5724040.0 713.90
305340.0 5724050.0 711.83
305340.0 5724060.0 710.24
305340.0 5724070.0 706.62
305340.0 5724080.0 704.30
305340.0 5724090.0 701.69
305340.0 5724100.0 698.05
305340.0 5724110.0 693.98
305340.0 5724120.0 690.52
305340.0 5724130.0 687.49
305340.0 5724140.0 684.06
305340.0 5724150.0 681.09
305340.0 5724160.0 679.22
305340.0 5724170.0 675.03
305340.0 5724180.0 670.59
305340.0 5724190.0 665.01
305340.0 5724200.0 662.84
305340.0 5724210.0 661.08
305340.0 5724220.0 657.62
305340.0 5724230.0 653.42
305350.0 5723700.0 703.41
305350.0 5723710.0 709.17
305350.0 5723720.0 713.72
305350.0 5723730.0 717.54
305350.0 5723740.0 719.67
305350.0 5723750.0 721.67
305350.0 5723760.0 720.64
305350.0 5723770.0 722.00
305350.0 5723780.0 722.00
305350.0 5723790.0 722.47
305350.0 5723800.0 721.97
305350.0 5723810.0 724.72
305350.0 5723820.0 726.71
305350.0 5723830.0 731.38
305350.0 5723840.0 732.87
305350.0 5723850.0 731.59
305350.0 5723860.0 730.34
305350.0 5723870.0 727.14
305350.0 5723880.0 728.61
305350.0 5723890.0 729.49
305350.0 5723900.0 727.23
305350.0 5723910.0 725.73
305350.0 5723920.0 722.72
305350.0 5723930.0 720.10
305350.0 5723940.0 718.97
305350.0 5723950.0 715.94
305350.0 5723960.0 714.72
305350.0 5723970.0 712.74
305350.0 5723980.0 713.35
305350.0 5723990.0 714.36
305350.0 5724000.0 715.00
305350.0 5724010.0 714.34
305350.0 5724020.0 714.74
305350.0 5724030.0 710.93
305350.0 5724040.0 708.72
305350.0 5724050.0 706.08
305350.0 5724060.0 703.85
305350.0 5724070.0 701.57
305350.0 5724080.0 698.76
305350.0 5724090.0 696.48
305350.0 5724100.0 693.01
305350.0 5724110.0 689.81
305350.0 5724120.0 687.20
305350.0 5724130.0 683.71
305350.0 5724140.0 680.96
305350.0 5724150.0 677.24
305350.0 5724160.0 673.76
305350.0 5724170.0 669.24
305350.0 5724180.0 667.05
305350.0 5724190.0 663.24
305350.0 5724200.0 660.60
305350.0 5724210.0 656.50
305350.0 5724220.0 652.70
305350.0 5724230.0 645.00
305360.0 5723700.0 697.00
305360.0 5723710.0 700.45
305360.0 5723720.0 706.07
305360.0 5723730.0 708.12
305360.0 5723740.0 710.70
305360.0 5723750.0 712.61
305360.0 5723760.0 712.57
305360.0 5723770.0 714.54
305360.0 5723780.0 715.96
305360.0 5723790.0 714.80
305360.0 5723800.0 715.20
305360.0 5723810.0 720.12
305360.0 5723820.0 722.33
305360.0 5723830.0 725.75
305360.0 5723840.0 729.31
305360.0 5723850.0 727.66
305360.0 5723860.0 721.77
305360.0 5723870.0 720.00
305360.0 5723880.0 720.81
305360.0 5723890.0 720.01
305360.0 5723900.0 720.94
305360.0 5723910.0 718.94
305360.0 5723920.0 716.21
305360.0 5723930.0 714.20
305360.0 5723940.0 714.49
305360.0 5723950.0 712.67
305360.0 5723960.0 709.85
305360.0 5723970.0 709.75
305360.0 5723980.0 710.57
305360.0 5723990.0 710.61
305360.0 5724000.0 709.93
305360.0 5724010.0 709.39
305360.0 5724020.0 708.49
305360.0 5724030.0 707.16
305360.0 5724040.0 704.34
305360.0 5724050.0 704.26
305360.0 5724060.0 701.15
305360.0 5724070.0 697.25
305360.0 5724080.0 694.41
305360.0 5724090.0 692.41
305360.0 5724100.0 689.01
305360.0 5724110.0 686.05
305360.0 5724120.0 681.64
305360.0 5724130.0 676.54
305360.0 5724140.0 674.07
305360.0 5724150.0 671.63
305360.0 5724160.0 668.73
305360.0 5724170.0 664.81
305360.0 5724180.0 662.22
305360.0 5724190.0 659.58
305360.0 5724200.0 657.32
305360.0 5724210.0 651.31
305360.0 5724220.0 645.97
305360.0 5724230.0 636.00
305370.0 5723700.0 688.20
305370.0 5723710.0 694.32
305370.0 5723720.0 694.39
305370.0 5723730.0 698.58
305370.0 5723740.0 700.72
305370.0 5723750.0 702.80
305370.0 5723760.0 704.73
305370.0 5723770.0 705.55
305370.0 5723780.0 706.95
305370.0 5723790.0 707.00
305370.0 5723800.0 709.04
305370.0 5723810.0 716.02
305370.0 5723820.0 718.54
305370.0 5723830.0 719.83
305370.0 5723840.0 719.93
305370.0 5723850.0 714.91
305370.0 5723860.0 715.53
305370.0 5723870.0 716.46
305370.0 5723880.0 715.59
305370.0 5723890.0 712.55
305370.0 5723900.0 710.11
305370.0 5723910.0 709.69
305370.0 5723920.0 705.52
305370.0 5723930.0 707.54
305370.0 5723940.0 707.56
305370.0 5723950.0 707.82
305370.0 5723960.0 708.16
305370.0 5723970.0 705.58
305370.0 5723980.0 705.56
305370.0 5723990.0 705.86
305370.0 5724000.0 705.44
305370.0 5724010.0 704.10
305370.0 5724020.0 701.92
305370.0 5724030.0 700.38
305370.0 5724040.0 698.03
305370.0 5724050.0 698.03
305370.0 5724060.0 694.75
305370.0 5724070.0 691.06
305370.0 5724080.0 688.29
305370.0 5724090.0 685.22
305370.0 5724100.0 682.72
305370.0 5724110.0 679.56
305370.0 5724120.0 676.05
305370.0 5724130.0 673.56
305370.0 5724140.0 670.17
305370.0 5724150.0 669.64
305370.0 5724160.0 665.16
305370.0 5724170.0 661.17
305370.0 5724180.0 658.44
305370.0 5724190.0 655.81
305370.0 5724200.0 650.70
305370.0 5724210.0 645.92
305370.0 5724220.0 640.68
305370.0 5724230.0 628.22
305380.0 5723700.0 677.03
305380.0 5723710.0 681.42
305380.0 5723720.0 685.19
305380.0 5723730.0 687.89
305380.0 5723740.0 690.91
305380.0 5723750.0 694.72
305380.0 5723760.0 696.18
305380.0 5723770.0 697.06
305380.0 5723780.0 699.23
305380.0 5723790.0 696.75
305380.0 5723800.0 703.58
305380.0 5723810.0 708.75
305380.0 5723820.0 709.42
305380.0 5723830.0 711.72
305380.0 5723840.0 706.75
305380.0 5723850.0 707.35
305380.0 5723860.0 708.16
305380.0 5723870.0 709.26
305380.0 5723880.0 708.04
305380.0 5723890.0 708.10
305380.0 5723900.0 703.84
305380.0 5723910.0 699.72
305380.0 5723920.0 699.59
305380.0 5723930.0 703.61
305380.0 5723940.0 704.42
305380.0 5723950.0 706.99
305380.0 5723960.0 706.33
305380.0 5723970.0 704.13
305380.0 5723980.0 703.39
305380.0 5723990.0 703.35
305380.0 5724000.0 700.98
305380.0 5724010.0 699.76
305380.0 5724020.0 699.78
305380.0 5724030.0 696.80
305380.0 5724040.0 695.82
305380.0 5724050.0 692.44
305380.0 5724060.0 690.28
305380.0 5724070.0 686.98
305380.0 5724080.0 684.00
305380.0 5724090.0 682.38
305380.0 5724100.0 680.99
305380.0 5724110.0 675.38
305380.0 5724120.0 673.61
305380.0 5724130.0 669.93
305380.0 5724140.0 666.69
305380.0 5724150.0 662.12
305380.0 5724160.0 660.41
305380.0 5724170.0 656.58
305380.0 5724180.0 655.11
305380.0 5724190.0 651.09
305380.0 5724200.0 648.09
305380.0 5724210.0 640.91
305380.0 5724220.0 631.59
305380.0 5724230.0 620.86
305390.0 5723700.0 663.59
305390.0 5723710.0 668.98
305390.0 5723720.0 673.78
305390.0 5723730.0 678.45
305390.0 5723740.0 681.90
305390.0 5723750.0 683.95
305390.0 5723760.0 684.95
305390.0 5723770.0 685.71
305390.0 5723780.0 687.88
305390.0 5723790.0 689.52
305390.0 5723800.0 696.15
305390.0 5723810.0 699.75
305390.0 5723820.0 699.51
305390.0 5723830.0 698.75
305390.0 5723840.0 696.24
305390.0 5723850.0 701.53
305390.0 5723860.0 701.62
305390.0 5723870.0 701.82
305390.0 5723880.0 701.73
305390.0 5723890.0 700.09
305390.0 5723900.0 696.19
305390.0 5723910.0 694.67
305390.0 5723920.0 694.89
305390.0 5723930.0 699.69
305390.0 5723940.0 702.60
305390.0 5723950.0 703.86
305390.0 5723960.0 704.04
305390.0 5723970.0 704.40
305390.0 5723980.0 705.18
305390.0 5723990.0 700.66
305390.0 5724000.0 699.16
305390.0 5724010.0 698.34
305390.0 5724020.0 696.57
305390.0 5724030.0 695.10
305390.0 5724040.0 693.63
305390.0 5724050.0 689.88
305390.0 5724060.0 687.51
305390.0 5724070.0 684.61
305390.0 5724080.0 682.06
305390.0 5724090.0 676.91
305390.0 5724100.0 674.68
305390.0 5724110.0 669.56
305390.0 5724120.0 667.68
305390.0 5724130.0 663.24
305390.0 5724140.0 660.44
305390.0 5724150.0 658.70
305390.0 5724160.0 652.62
305390.0 5724170.0 650.60
305390.0 5724180.0 647.21
305390.0 5724190.0 645.90
305390.0 5724200.0 640.99
305390.0 5724210.0 636.21
305390.0 5724220.0 626.79
305390.0 5724230.0 613.29
305400.0 5723700.0 654.87
305400.0 5723710.0 657.87
305400.0 5723720.0 662.89
305400.0 5723730.0 666.06
305400.0 5723740.0 669.63
305400.0 5723750.0 671.78
305400.0 5723760.0 673.69
305400.0 5723770.0 672.29
305400.0 5723780.0 674.01
305400.0 5723790.0 681.30
305400.0 5723800.0 687.50
305400.0 5723810.0 689.42
305400.0 5723820.0 687.51
305400.0 5723830.0 681.38
305400.0 5723840.0 689.39
305400.0 5723850.0 693.67
305400.0 5723860.0 693.25
305400.0 5723870.0 694.70
305400.0 5723880.0 694.06
305400.0 5723890.0 690.54
305400.0 5723900.0 685.53
305400.0 5723910.0 689.18
305400.0 5723920.0 690.30
305400.0 5723930.0 694.59
305400.0 5723940.0 698.12
305400.0 5723950.0 699.91
305400.0 5723960.0 700.11
305400.0 5723970.0 699.94
305400.0 5723980.0 699.28
305400.0 5723990.0 696.78
305400.0 5724000.0 695.87
305400.0 5724010.0 694.73
305400.0 5724020.0 693.53
305400.0 5724030.0 691.77
305400.0 5724040.0 689.82
305400.0 5724050.0 687.89
305400.0 5724060.0 682.27
305400.0 5724070.0 679.42
305400.0 5724080.0 676.49
305400.0 5724090.0 671.88
305400.0 5724100.0 668.61
305400.0 5724110.0 663.20
305400.0 5724120.0 659.54
305400.0 5724130.0 658.42
305400.0 5724140.0 654.10
305400.0 5724150.0 651.68
305400.0 5724160.0 647.31
305400.0 5724170.0 644.56
305400.0 5724180.0 640.00
305400.0 5724190.0 636.24
305400.0 5724200.0 634.09
305400.0 5724210.0 628.36
305400.0 5724220.0 619.66
305400.0 5724230.0 599.86
305410.0 5723700.0 643.18
305410.0 5723710.0 645.58
305410.0 5723720.0 648.24
305410.0 5723730.0 650.96
305410.0 5723740.0 655.16
305410.0 5723750.0 658.43
305410.0 5723760.0 659.92
305410.0 5723770.0 656.38
305410.0 5723780.0 663.54
305410.0 5723790.0 671.58
305410.0 5723800.0 677.40
305410.0 5723810.0 678.71
305410.0 5723820.0 677.60
305410.0 5723830.0 677.74
305410.0 5723840.0 680.23
305410.0 5723850.0 683.95
305410.0 5723860.0 685.25
305410.0 5723870.0 685.38
305410.0 5723880.0 684.07
305410.0 5723890.0 680.21
305410.0 5723900.0 681.31
305410.0 5723910.0 680.24
305410.0 5723920.0 678.39
305410.0 5723930.0 689.43
305410.0 5723940.0 694.45
305410.0 5723950.0 695.90
305410.0 5723960.0 697.55
305410.0 5723970.0 696.04
305410.0 5723980.0 695.59
305410.0 5723990.0 693.23
305410.0 5724000.0 692.12
305410.0 5724010.0 689.19
305410.0 5724020.0 687.57
305410.0 5724030.0 685.81
305410.0 5724040.0 683.16
305410.0 5724050.0 680.81
305410.0 5724060.0 677.50
305410.0 5724070.0 675.67
305410.0 5724080.0 670.74
305410.0 5724090.0 667.06
305410.0 5724100.0 661.61
305410.0 5724110.0 656.42
305410.0 5724120.0 650.26
305410.0 5724130.0 646.36
305410.0 5724140.0 644.15
305410.0 5724150.0 640.45
305410.0 5724160.0 631.60
305410.0 5724170.0 634.55
305410.0 5724180.0 632.07
305410.0 5724190.0 625.24
305410.0 5724200.0 621.96
305410.0 5724210.0 607.52
305410.0 5724220.0 600.45
305410.0 5724230.0 584.48
305420.0 5723700.0 629.29
305420.0 5723710.0 635.50
305420.0 5723720.0 635.28
305420.0 5723730.0 639.85
305420.0 5723740.0 642.48
305420.0 5723750.0 644.52
305420.0 5723760.0 649.41
305420.0 5723770.0 649.67
305420.0 5723780.0 655.29
305420.0 5723790.0 661.75
305420.0 5723800.0 665.89
305420.0 5723810.0 667.40
305420.0 5723820.0 665.60
305420.0 5723830.0 670.96
305420.0 5723840.0 674.45
305420.0 5723850.0 675.96
305420.0 5723860.0 677.14
305420.0 5723870.0 676.36
305420.0 5723880.0 673.46
305420.0 5723890.0 672.11
305420.0 5723900.0 671.90
305420.0 5723910.0 669.54
305420.0 5723920.0 669.77
305420.0 5723930.0 682.84
305420.0 5723940.0 690.77
305420.0 5723950.0 692.11
305420.0 5723960.0 693.63
305420.0 5723970.0 692.02
305420.0 5723980.0 691.36
305420.0 5723990.0 689.04
305420.0 5724000.0 686.73
305420.0 5724010.0 685.49
305420.0 5724020.0 681.24
305420.0 5724030.0 677.63
305420.0 5724040.0 676.51
305420.0 5724050.0 674.88
305420.0 5724060.0 672.21
305420.0 5724070.0 668.53
305420.0 5724080.0 663.49
305420.0 5724090.0 658.62
305420.0 5724100.0 653.19
305420.0 5724110.0 647.89
305420.0 5724120.0 644.08
305420.0 5724130.0 640.06
305420.0 5724140.0 635.94
305420.0 5724150.0 626.09
305420.0 5724160.0 617.78
305420.0 5724170.0 615.33
305420.0 5724180.0 608.10
305420.0 5724190.0 602.58
305420.0 5724200.0 588.65
305420.0 5724210.0 584.54
305420.0 5724220.0 584.31
305420.0 5724230.0 583.94
305430.0 5723700.0 618.08
305430.0 5723710.0 622.83
305430.0 5723720.0 621.65
305430.0 5723730.0 625.09
305430.0 5723740.0 626.86
305430.0 5723750.0 630.04
305430.0 5723760.0 633.77
305430.0 5723770.0 639.77
305430.0 5723780.0 646.60
305430.0 5723790.0 651.60
305430.0 5723800.0 655.98
305430.0 5723810.0 656.90
305430.0 5723820.0 658.58
305430.0 5723830.0 662.30
305430.0 5723840.0 666.66
305430.0 5723850.0 668.66
305430.0 5723860.0 668.48
305430.0 5723870.0 667.76
305430.0 5723880.0 665.71
305430.0 5723890.0 665.83
305430.0 5723900.0 661.83
305430.0 5723910.0 657.34
305430.0 5723920.0 659.93
305430.0 5723930.0 670.13
305430.0 5723940.0 684.42
305430.0 5723950.0 686.87
305430.0 5723960.0 686.23
305430.0 5723970.0 685.59
305430.0 5723980.0 683.41
305430.0 5723990.0 681.29
305430.0 5724000.0 680.37
305430.0 5724010.0 678.14
305430.0 5724020.0 675.08
305430.0 5724030.0 672.73
305430.0 5724040.0 670.26
305430.0 5724050.0 668.42
305430.0 5724060.0 665.21
305430.0 5724070.0 661.43
305430.0 5724080.0 655.43
305430.0 5724090.0 651.08
305430.0 5724100.0 644.20
305430.0 5724110.0 636.93
305430.0 5724120.0 632.07
305430.0 5724130.0 625.51
305430.0 5724140.0 620.90
305430.0 5724150.0 609.70
305430.0 5724160.0 602.13
305430.0 5724170.0 592.18
305430.0 5724180.0 588.19
305430.0 5724190.0 584.58
305430.0 5724200.0 584.48
305430.0 5724210.0 584.41
305430.0 5724220.0 584.02
305430.0 5724230.0 583.02
305440.0 5723700.0 615.40
305440.0 5723710.0 613.73
305440.0 5723720.0 612.31
305440.0 5723730.0 610.94
305440.0 5723740.0 616.94
305440.0 5723750.0 622.26
305440.0 5723760.0 627.68
305440.0 5723770.0 634.12
305440.0 5723780.0 640.46
305440.0 5723790.0 646.80
305440.0 5723800.0 650.09
305440.0 5723810.0 654.22
305440.0 5723820.0 655.99
305440.0 5723830.0 656.61
305440.0 5723840.0 656.23
305440.0 5723850.0 657.06
305440.0 5723860.0 657.21
305440.0 5723870.0 658.22
305440.0 5723880.0 653.65
305440.0 5723890.0 652.28
305440.0 5723900.0 649.69
305440.0 5723910.0 647.09
305440.0 5723920.0 652.28
305440.0 5723930.0 660.35
305440.0 5723940.0 675.09
305440.0 5723950.0 678.22
305440.0 5723960.0 677.13
305440.0 5723970.0 674.49
305440.0 5723980.0 674.11
305440.0 5723990.0 672.37
305440.0 5724000.0 673.38
305440.0 5724010.0 671.76
305440.0 5724020.0 671.91
305440.0 5724030.0 667.73
305440.0 5724040.0 666.32
305440.0 5724050.0 660.13
305440.0 5724060.0 656.22
305440.0 5724070.0 650.87
305440.0 5724080.0 643.17
305440.0 5724090.0 637.59
305440.0 5724100.0 632.27
305440.0 5724110.0 628.43
305440.0 5724120.0 619.13
305440.0 5724130.0 609.57
305440.0 5724140.0 596.61
305440.0 5724150.0 588.83
305440.0 5724160.0 585.04
305440.0 5724170.0 584.55
305440.0 5724180.0 584.52
305440.0 5724190.0 584.44
305440.0 5724200.0 583.58
305440.0 5724210.0 583.52
305440.0 5724220.0 582.80
305440.0 5724230.0 560.62
305450.0 5723700.0 608.48
305450.0 5723710.0 608.26
305450.0 5723720.0 606.77
305450.0 5723730.0 609.02
305450.0 5723740.0 617.56
305450.0 5723750.0 623.21
305450.0 5723760.0 623.72
305450.0 5723770.0 630.47
305450.0 5723780.0 636.24
305450.0 5723790.0 640.52
305450.0 5723800.0 647.13
305450.0 5723810.0 643.62
305450.0 5723820.0 643.59
305450.0 5723830.0 648.23
305450.0 5723840.0 647.75
305450.0 5723850.0 646.27
305450.0 5723860.0 646.01
305450.0 5723870.0 646.12
305450.0 5723880.0 644.43
305450.0 5723890.0 637.68
305450.0 5723900.0 637.94
305450.0 5723910.0 638.13
305450.0 5723920.0 646.08
305450.0 5723930.0 644.32
305450.0 5723940.0 661.11
305450.0 5723950.0 666.41
305450.0 5723960.0 667.08
305450.0 5723970.0 665.07
305450.0 5723980.0 663.12
305450.0 5723990.0 661.50
305450.0 5724000.0 660.61
305450.0 5724010.0 661.28
305450.0 5724020.0 660.15
305450.0 5724030.0 659.42
305450.0 5724040.0 655.95
305450.0 5724050.0 651.90
305450.0 5724060.0 647.56
305450.0 5724070.0 639.80
305450.0 5724080.0 631.91
305450.0 5724090.0 625.05
305450.0 5724100.0 620.48
305450.0 5724110.0 593.43
305450.0 5724120.0 589.35
305450.0 5724130.0 586.92
305450.0 5724140.0 584.74
305450.0 5724150.0 584.61
305450.0 5724160.0 584.59
305450.0 5724170.0 584.46
305450.0 5724180.0 583.28
305450.0 5724190.0 583.05
305450.0 5724200.0 581.94
305450.0 5724210.0 565.78
305450.0 5724220.0 557.27
305450.0 5724230.0 552.98
305460.0 5723700.0 603.95
305460.0 5723710.0 605.15
305460.0 5723720.0 603.27
305460.0 5723730.0 604.68
305460.0 5723740.0 611.82
305460.0 5723750.0 618.99
305460.0 5723760.0 621.94
305460.0 5723770.0 621.32
305460.0 5723780.0 627.79
305460.0 5723790.0 623.45
305460.0 5723800.0 622.90
305460.0 5723810.0 619.18
305460.0 5723820.0 626.14
305460.0 5723830.0 635.23
305460.0 5723840.0 637.66
305460.0 5723850.0 636.26
305460.0 5723860.0 637.99
305460.0 5723870.0 635.79
305460.0 5723880.0 629.43
305460.0 5723890.0 619.10
305460.0 5723900.0 620.17
305460.0 5723910.0 625.66
305460.0 5723920.0 632.84
305460.0 5723930.0 634.60
305460.0 5723940.0 635.45
305460.0 5723950.0 649.69
305460.0 5723960.0 654.32
305460.0 5723970.0 653.00
305460.0 5723980.0 650.12
305460.0 5723990.0 643.48
305460.0 5724000.0 640.01
305460.0 5724010.0 641.62
305460.0 5724020.0 635.47
305460.0 5724030.0 634.94
305460.0 5724040.0 634.90
305460.0 5724050.0 634.78
305460.0 5724060.0 632.76
305460.0 5724070.0 627.18
305460.0 5724080.0 590.89
305460.0 5724090.0 588.45
305460.0 5724100.0 585.85
305460.0 5724110.0 584.73
305460.0 5724120.0 584.67
305460.0 5724130.0 584.67
305460.0 5724140.0 584.51
305460.0 5724150.0 584.39
305460.0 5724160.0 584.27
305460.0 5724170.0 583.08
305460.0 5724180.0 572.91
305460.0 5724190.0 565.10
305460.0 5724200.0 560.63
305460.0 5724210.0 551.84
305460.0 5724220.0 550.14
305460.0 5724230.0 549.47
305470.0 5723700.0 600.70
305470.0 5723710.0 599.83
305470.0 5723720.0 600.75
305470.0 5723730.0 600.84
305470.0 5723740.0 600.55
305470.0 5723750.0 601.40
305470.0 5723760.0 609.48
305470.0 5723770.0 610.84
305470.0 5723780.0 611.37
305470.0 5723790.0 609.69
305470.0 5723800.0 609.52
305470.0 5723810.0 608.19
305470.0 5723820.0 609.03
305470.0 5723830.0 614.01
305470.0 5723840.0 619.79
305470.0 5723850.0 621.64
305470.0 5723860.0 617.29
305470.0 5723870.0 614.19
305470.0 5723880.0 612.85
305470.0 5723890.0 606.55
305470.0 5723900.0 605.40
305470.0 5723910.0 609.37
305470.0 5723920.0 616.64
305470.0 5723930.0 616.18
305470.0 5723940.0 618.09
305470.0 5723950.0 623.00
305470.0 5723960.0 627.29
305470.0 5723970.0 631.06
305470.0 5723980.0 621.20
305470.0 5723990.0 617.11
305470.0 5724000.0 612.39
305470.0 5724010.0 616.37
305470.0 5724020.0 612.30
305470.0 5724030.0 598.26
305470.0 5724040.0 589.67
305470.0 5724050.0 588.76
305470.0 5724060.0 587.40
305470.0 5724070.0 585.63
305470.0 5724080.0 584.73
305470.0 5724090.0 584.71
305470.0 5724100.0 584.63
305470.0 5724110.0 584.44
305470.0 5724120.0 584.14
305470.0 5724130.0 584.66
305470.0 5724140.0 586.31
305470.0 5724150.0 585.57
305470.0 5724160.0 570.73
305470.0 5724170.0 563.82
305470.0 5724180.0 559.37
305470.0 5724190.0 550.36
305470.0 5724200.0 541.58
305470.0 5724210.0 544.01
305470.0 5724220.0 543.64
305470.0 5724230.0 541.48
305480.0 5723700.0 589.34
305480.0 5723710.0 590.93
305480.0 5723720.0 589.95
305480.0 5723730.0 588.95
305480.0 5723740.0 588.29
305480.0 5723750.0 589.20
305480.0 5723760.0 591.82
305480.0 5723770.0 591.37
305480.0 5723780.0 592.12
305480.0 5723790.0 592.04
305480.0 5723800.0 592.10
305480.0 5723810.0 592.18
305480.0 5723820.0 590.93
305480.0 5723830.0 589.75
305480.0 5723840.0 590.97
305480.0 5723850.0 591.29
305480.0 5723860.0 590.38
305480.0 5723870.0 589.95
305480.0 5723880.0 588.97
305480.0 5723890.0 588.36
305480.0 5723900.0 588.78
305480.0 5723910.0 588.55
305480.0 5723920.0 588.90
305480.0 5723930.0 589.37
305480.0 5723940.0 589.41
305480.0 5723950.0 588.99
305480.0 5723960.0 589.23
305480.0 5723970.0 589.20
305480.0 5723980.0 588.74
305480.0 5723990.0 588.01
305480.0 5724000.0 586.95
305480.0 5724010.0 585.36
305480.0 5724020.0 584.91
305480.0 5724030.0 584.85
305480.0 5724040.0 584.79
305480.0 5724050.0 584.77
305480.0 5724060.0 584.71
305480.0 5724070.0 584.29
305480.0 5724080.0 583.16
305480.0 5724090.0 581.54
305480.0 5724100.0 581.33
305480.0 5724110.0 577.15
305480.0 5724120.0 582.04
305480.0 5724130.0 572.82
305480.0 5724140.0 575.07
305480.0 5724150.0 572.25
305480.0 5724160.0 562.12
305480.0 5724170.0 556.54
305480.0 5724180.0 553.03
305480.0 5724190.0 544.40
305480.0 5724200.0 535.60
305480.0 5724210.0 532.98
305480.0 5724220.0 531.81
305480.0 5724230.0 529.59
305490.0 5723700.0 585.50
305490.0 5723710.0 585.48
305490.0 5723720.0 585.41
305490.0 5723730.0 585.40
305490.0 5723740.0 585.36
305490.0 5723750.0 585.35
305490.0 5723760.0 585.35
305490.0 5723770.0 585.35
305490.0 5723780.0 585.34
305490.0 5723790.0 585.34
305490.0 5723800.0 585.33
305490.0 5723810.0 585.32
305490.0 5723820.0 585.31
305490.0 5723830.0 585.32
305490.0 5723840.0 585.31
305490.0 5723850.0 585.30
305490.0 5723860.0 585.28
305490.0 5723870.0 585.27
305490.0 5723880.0 585.26
305490.0 5723890.0 585.24
305490.0 5723900.0 585.19
305490.0 5723910.0 585.17
305490.0 5723920.0 585.16
305490.0 5723930.0 585.13
305490.0 5723940.0 585.11
305490.0 5723950.0 585.07
305490.0 5723960.0 585.03
305490.0 5723970.0 585.01
305490.0 5723980.0 584.98
305490.0 5723990.0 584.96
305490.0 5724000.0 584.94
305490.0 5724010.0 584.77
305490.0 5724020.0 584.41
305490.0 5724030.0 583.32
305490.0 5724040.0 584.03
305490.0 5724050.0 584.32
305490.0 5724060.0 584.63
305490.0 5724070.0 584.61
305490.0 5724080.0 576.42
305490.0 5724090.0 575.26
305490.0 5724100.0 573.38
305490.0 5724110.0 568.50
305490.0 5724120.0 563.64
305490.0 5724130.0 557.01
305490.0 5724140.0 552.47
305490.0 5724150.0 553.55
305490.0 5724160.0 550.07
305490.0 5724170.0 547.60
305490.0 5724180.0 543.65
305490.0 5724190.0 533.79
305490.0 5724200.0 528.21
305490.0 5724210.0 523.58
305490.0 5724220.0 519.92
305490.0 5724230.0 515.53
305500.0 5723700.0 584.24
305500.0 5723710.0 584.05
305500.0 5723720.0 585.06
305500.0 5723730.0 584.66
